# 3D point list with one line of data per point:
#   POINT3D_ID, X, Y, Z, R, G, B, ERROR, TRACK[] as (IMAGE_ID, POINT2D_IDX)
# Number of points: 361, mean track length: 4.9708933918250819
4658 -0.5005539406975299 0.93103581413120418 2.6242895801920065 57 107 52 0.60007141645822681 62 1665 80 2205 66 1894 88 2210 11 867 94 570 40 1098
8109 -0.63907826456153316 0.84921112857038306 2.6527845394186724 70 109 50 0.18148649536197511 51 656 79 637 37 491
4660 -0.64224479228703035 1.0858845304914813 2.6650704309855611 242 230 144 0.076985796603261769 14 1818 66 1917
6055 -0.66286899673690791 1.3215753688270004 2.9489600388520958 240 231 213 0.27695536054334197 88 855 61 827 79 739
6358 0.23899732102235238 1.3868936774974887 2.7000687662401517 99 118 78 0.323611891573718 61 487 79 394 54 270
4662 0.27206307887415776 0.85969924617730387 2.6654878503003023 184 172 112 0.11055876757716121 80 2338 66 1982 44 1223
4663 0.20230394095500653 0.93266740934836057 2.6441794672714725 181 169 114 0.25086540542164049 100 2071 66 1989 45 1574 79 364 98 1588
7590 0.41695068558490611 0.49596761445788679 2.0767407171572057 133 154 106 1.4053968265101513 99 2585 67 2365 15 2064 77 1796 75 1712
4667 -0.1769184144607337 0.81298425410754793 1.4246906663692815 0 0 0 2.8714218850032465 58 1703 90 2126
5546 -0.79441407134650455 1.1343343172624871 2.939963068834035 198 186 182 0.19900349087210167 56 2307 51 2188
4668 -0.4569612560939717 0.80640933409855775 2.6301151340091948 240 222 138 0.16339298832724347 100 2063 66 2067 37 1813 52 1107
6063 0.78537781708510268 -0.10450527198566993 2.6738238425544534 60 117 64 2.0389324020598334 90 961 61 963
4670 -0.51579798758522954 1.4396177418788723 2.8647591832553903 0 0 0 0.062438302200623963 13 1769 66 2086
5336 -0.23473195744041186 0.42629718363475211 2.6988922661735142 58 103 44 0.14825454720496098 58 220 51 512 45 499 98 189 81 178 29 274
6057 0.52495486460365226 0.33532350011589723 1.6693810759750045 231 236 252 0.14444151387150386 90 852 61 872 60 825
4672 -0.74909044424640658 1.2219993116651555 2.6913692417799044 0 0 0 0.80485047301620471 74 2189 66 2099
4674 0.094240005508626379 0.022076933665654289 1.5778325984903723 92 83 52 0.49546416031997903 80 2569 66 2114 51 2200 45 2392 37 1772 40 1443
4675 0.50853546513845793 0.63102353952633838 2.684183448993422 209 216 234 0.064168875809008569 62 1863 66 2117 58 1774
4676 0.48765987436846059 0.61987813023356375 2.7214012641781951 135 117 66 0.60170430946831288 62 1860 66 2120 58 1634 98 1474 10 1464 30 1407
4678 0.19391186482008721 0.39381435952291594 2.6372950017136172 102 88 59 1.125703376576912 17 1931 66 2128 56 2234 51 2136
6129 -0.70151456356628739 1.2474663053076516 2.904281315190322 177 166 160 0.36159056528067196 88 1461 61 1486 79 1365
4679 0.10314349124662847 0.5141718914025275 2.694207254230089 179 165 103 0.23505343138724641 58 1825 66 2137 56 2244 51 2144 45 2323 80 2496 30 1604 37 1800
7670 -0.57714080409208046 0.32389755617669019 2.2072767571208023 93 160 80 0.2399842165892383 61 449 60 336
4680 -0.006270202832555416 1.3640271162955262 2.6256742671141748 169 180 112 1.2478086886310282 17 1980 66 2152 10 1636 30 1450 62 1906 58 1737 83 1832 48 1448 8 1090 72 978
8187 -0.65180829505542315 0.6739792448167613 2.6843858830623772 212 193 116 0.15985286800547843 51 1661 37 1381
4683 0.34367955560155261 0.91877141024233056 2.6681717404415872 57 106 52 1.0124443638535163 80 2598 66 2208 88 2500 56 2226 51 2121 45 2310 61 2335 10 1705 30 1642 37 1647 40 1294 11 1199 44 1374 94 800
5626 -0.12099470162724954 0.69171921094625177 2.6314097395022418 189 171 110 0.10813337197931944 51 435 45 442 37 313
4684 0.27256351005275992 0.69144071344559488 2.6944035423489523 72 105 59 0.98778694395527522 62 2001 66 2209 56 2233 10 1711 30 1643 81 1293 52 1300
4686 -0.10349727797166786 0.6209828151337603 2.6429751194475468 99 116 61 1.3819895997000604 62 1992 66 2228 56 2343 98 1716 10 1713 29 1157
6137 0.4492789872859182 0.38007401448457495 1.8417262630514086 92 131 76 0.20330683581661982 88 2014 61 1536 60 1381
4690 0.19635526748152371 1.4410629899391416 2.6954257409999141 93 131 58 0.84871165449696284 58 1917 62 2048 66 2280 88 2660 56 2396 80 2673 51 2269 45 2472 10 1729 30 1656
5411 -0.30313663151179493 0.85021485675043096 2.6082935574941803 55 93 48 0.12552413424744169 13 872 51 1129 30 692 37 890 44 576 52 506
8141 -0.71389725853937691 1.1069819155394516 2.6896333223178956 178 197 120 0.14496270855671714 80 1462 37 954 40 365
4691 -0.13890190077573866 1.4968243892198423 2.6830476055704113 181 193 99 0.76137086348846406 14 2211 66 2290 51 2217
4694 0.10639661283081234 0.68057945166453038 2.6562543807330625 50 99 52 0.7863432624926282 62 2068 66 2316 51 2273 45 2471 37 1933 40 1664 11 1383
6081 -0.18139241540304962 0.051792143941114727 2.1879198082503715 137 136 92 0.27131107106865954 45 318 61 1054 79 988 60 256
7463 0.49668426540485966 0.30755053538590554 1.63538440467261 171 176 190 0.23240815618846838 99 1425 67 1252 15 1093 77 956 75 903
4695 -0.17104042181427542 0.49145413680346156 2.6793192343446006 59 98 44 0.97147219207438007 58 1938 74 2416 66 2327 98 1773 10 1784 30 1704 83 1919 42 1465 44 1472
5924 -0.38286225846456967 1.0583231976791423 2.6084067300377547 62 110 56 0.13724683582271885 59 1285 56 1217 45 1249 35 1334 34 1266 80 1365 17 1041
4699 -0.28829643414681227 0.36115028089142848 2.714771973567101 146 142 83 0.88213252711692447 80 2764 66 2385 10 1852 62 2089
5578 0.27842794149415279 0.75484536448065809 2.6780675255024931 125 137 83 1.6824223858864984 80 2701 88 2646 56 2437 51 2312 14 2240 17 2127 62 2131 58 2009 34 2512 66 2360 62 2074 45 2467 10 1833 30 1766
7976 0.037365332158633593 0.94726169290776074 2.6145340395350463 57 100 52 0.13620055867334568 99 511 83 979
6089 0.22286711113436047 1.4051204619659854 2.697258296867906 130 140 65 0.21401658453699493 45 1076 61 1195 37 740 40 136
4704 0.29839051464984656 1.0258084294364467 2.1782601028081916 255 252 224 0.26534620847849288 14 552 100 571 17 606 62 1115 58 573 74 1209 66 884 35 499 34 1186 80 1138 59 1137 88 1100 56 925 51 148 45 190 10 97 30 282 83 437 37 65 11 23 44 482 81 624 52 224 50 423 33 3 68 57
4706 0.068849271535802004 0.084911883328798107 1.7322745526208367 64 122 65 0.24556283603295942 14 762 17 1185 62 734 66 1336 35 1491 80 1523 90 1409 74 860 88 1527 56 1426
8093 -0.53617923560493774 1.220366859862511 2.6515656271476353 127 183 92 0.022122869040252437 51 597 37 376
4707 -0.88905118576775399 0.76272287446102272 2.7488032836468124 63 109 47 1.0827473185538443 14 1021 58 1103 36 1262 74 472 59 612 66 1678 14 441 17 308 59 616 88 2249 51 1921 45 2108 61 1936 45 1836 79 2048 98 579 10 780 37 1418 23 1268 11 1147 44 936 94 911 29 414 97 1048 73 743
5522 -1.0571037517031114 0.92569070717359858 3.5506881149697342 206 184 154 0.0041901554028826518 56 2031 51 1927
4708 -0.19334229828094027 0.43854117943930926 2.6927296170768216 151 144 80 0.60649741404504309 14 1706 74 1886 13 1517 66 1821 100 1794 34 1581 58 1538 56 1941 80 1718 45 2001 44 1162 29 946
6039 -0.67748206503960806 0.84420630896894489 2.6620933564555531 73 115 57 0.038234535322218696 45 727 61 707
4710 0.5216569579527438 0.62495814098237445 2.1948404713150125 106 90 56 0.6577034327984449 17 2009 62 2002 58 1902 66 2110 14 1930 100 2014 17 1949 62 1956 34 2197 35 1984 74 2106 80 2315 59 2266 36 2276 88 2329 56 2215 51 2102 45 2134 61 2301 79 2101 10 1666 37 1622 40 1272
4711 -0.24087800794092151 1.250064810291359 2.614379127223406 81 139 67 0.46326933613236027 17 1895 62 1899 58 1705 13 1845 14 2089 66 2164 35 2383 80 2543 59 2454 99 2324 88 2537 56 2277 98 1543
4712 0.19864560007093029 0.24359652061532 1.7915874250606614 143 167 113 0.98337917417639709 14 2022 100 2135 17 1921 74 2226 66 2204 100 2229 34 2397 74 2309
8091 -0.27561809080459898 0.73860900475165114 2.6220923899643318 72 105 51 0.093111993529008646 45 516 56 526 37 360 66 502
4714 -0.058771097134376046 1.0444573785266584 2.5996056859082546 173 173 103 1.1162445595247337 35 2592 100 2384 17 2142 58 1994 34 2584 80 2782 13 2028 59 2666 36 2676 99 2550 90 2513 66 2324 80 2716 36 2620 88 2701 56 2456 51 2324 45 2477 61 2709 98 1828 99 2499 10 1806 67 2281 83 2001 15 2016 77 1745 44 1446 81 1340 52 1382 50 1266 33 1205 68 927
4715 -0.63698585360989168 1.0571657516630513 2.6613553451607448 137 184 95 0.63275264559110733 14 2261 100 2391 66 2416 35 2597 34 2600 74 2496 80 2815 59 2690 36 2701 90 2603 88 2798 56 2539 51 2399 45 2625 61 2805 79 2590 67 2288 60 2545 37 1988 37 2017 78 2464 69 2331 54 2048
5530 -0.0065525763985811308 0.10209177038698361 1.8455144273121526 68 128 66 0.097121294046488491 56 2064 51 1956 45 2142
4716 -0.41012461941175959 1.0745007806295275 2.5934302680870567 0 0 0 0.012093695170745326 34 631 35 644
4718 -0.332598592248188 0.71558301689426951 3.9430490301515615 231 212 130 0.29932950945734804 74 1215 66 1182
4719 -0.074681818694609756 0.47723996010925235 2.6872308429878182 64 101 46 0.16755689532301032 100 1798 66 1797 10 1479
4722 0.41439317672256537 0.30584144745662323 1.7456010558867885 52 87 46 0.19995959464556476 59 97 99 106 88 82
8173 -0.44198682031502695 0.73129895728768957 2.6374109757091491 52 81 40 0.1959172499855526 17 1347 30 1038 37 1303
4723 0.23841033830264152 0.2241675193459105 1.7415045547552486 59 107 57 0.19426526324081617 99 85 88 100
5602 -0.10587013219663442 0.017685141970968377 1.8720795931532668 60 103 51 0.26447593570443317 51 944 45 195 37 191 40 114
4726 0.11262702607037683 0.13953056782206791 1.7450707320303591 193 183 126 0.0090178856841680016 80 104 88 117
6113 -0.27177725890233784 0.68236522702788283 3.3162266403242282 73 112 53 1.7649745104588241 34 1197 61 1392 33 620
4727 0.54578036914224859 0.43701231896829817 1.9811945502362851 154 152 165 0.10826424616237991 34 192 35 215 88 138
4728 -0.10866163279835819 -0.078292182689253045 1.8006974295051443 45 90 49 0.083946085338387946 80 111 88 148 61 134 79 108 69 96
8171 -0.56236203877198043 1.2415264279677141 2.6672994621062278 105 186 84 0.078056585985901636 51 1621 37 1282
4731 -0.11382681038746138 -0.05298684643033795 1.8228271542211802 149 145 103 0.2000221221583699 80 124 88 161 51 251 45 188 61 137 79 119 37 189 69 106 54 117 23 91 40 111
5610 0.27750801751253806 1.2374327417219726 2.5163264630565485 59 49 40 0.66801099260004715 51 193 45 269 79 1048 37 107
4732 -0.14987504886482178 -0.066673163485446482 1.8835130654846557 131 132 92 0.41686755878214221 36 88 88 181 51 983 45 978 61 959 55 774 32 100 95 807
6127 -0.92264977040480212 0.8953376155520838 2.7460743183918557 72 123 57 0.78896166548152058 80 1460 61 1483 60 1223 78 1251 69 1170 55 527 95 598 22 556 54 1074 23 971 40 464
4734 0.036365964604359119 0.18143998987211518 1.9110169954362284 61 117 64 0.23806287716382002 90 154 88 194 15 67 32 122 95 117 22 101
4737 0.65427927611379977 0.026346553211896398 2.8700309424368391 72 131 74 1.3265288189333442 99 337 88 242
5910 -0.73027524158674473 1.2094419605005218 2.9359112149462274 203 197 203 1.1093328445210073 51 2293 45 2634 79 2620 54 2102
5395 -0.14147192288161567 0.080527155167272588 2.077606591847224 74 137 75 0.032911239079424191 56 1030 51 1014
12042 0.57684146643667944 0.56241906457660207 2.1522097416553696 108 89 69 0.33285251590700521 48 141 83 315 42 182
4741 0.077484631817342914 0.32055387281239889 2.3720457594519444 70 146 83 0.023911476135849801 36 309 88 298
4742 0.40097259608193409 0.86817737097987657 2.3359958902453744 199 187 153 0.61605704730148858 80 356 44 101
7447 -0.43398894260163962 1.3149421868050111 2.6533635134519598 245 227 139 0.03465124951249067 36 1376 67 1136
4743 -0.2007958741768712 0.078315696882940239 2.4770164420845515 54 110 60 0.18884138984864349 90 331 88 348 32 972
4745 0.26383192930651939 0.96598042366712411 2.6480477792242967 79 138 72 0.013419104348629737 59 505 88 439
5918 -0.24957434346078389 0.90576647388899911 2.6011215956436295 34 56 30 0.11542899931190967 58 811 56 1170 45 1205 34 1213 74 1187
4746 0.14779034183178952 0.85144662446466535 2.642541949312335 63 119 62 0.091620912495801496 59 489 88 450 61 431
5403 -0.16262940091870606 0.73668295140854234 2.6181384357147799 70 102 54 0.21296515158261209 66 1522 51 1090 30 1078 50 571
4747 0.013033967577196701 0.71028726406766196 2.6392669137506983 168 158 99 0.10289511960740735 62 955 88 456
4749 -0.061509462441058427 0.85544304780004621 2.6095434049102901 70 115 61 0.088956363704459376 100 498 88 494 44 165 13 385
7954 -0.016264649759460334 1.3196032743539849 2.6173671938056473 170 180 109 0.12163002546198227 56 394 67 560 83 573
4751 -0.14786409910997381 0.83415161505985069 2.6078792170386125 79 122 65 0.14486361092673419 66 435 88 516 81 162
5916 -0.056622736270457441 -0.036737532371421314 1.762277960656617 57 108 60 1.5974082338167401 14 736 100 817 17 10 62 14 66 890 56 1456 51 1411 45 1890 34 2153 74 1803 13 668 88 2022 80 2013 61 2281 79 1831 37 751 40 98
4753 -0.18070644274045516 0.88698701797360535 2.6018211624888372 222 210 131 0.11106628800060517 13 364 88 536 61 515 10 200
5990 -0.48577278592557233 0.1549817323960076 2.2243493994587871 111 153 72 0.27471042276855279 45 1180 61 408 37 1322
4754 0.57064612062451092 0.70476907469828154 3.9940628421971383 74 121 64 1.2744395771045098 100 468 88 554
5475 -0.22231435843991462 0.41519235421228157 2.7048328502196908 60 103 44 0.13185596507616448 56 1630 66 1526 51 1565
4755 -0.052002746881688051 1.1752843843297816 2.5999810080723953 73 126 67 0.3944963697993833 34 649 88 560
4759 -0.28689329244520589 0.98848985649468746 2.5967873484439061 247 230 147 0.18660751028055653 59 586 88 596 44 114
5988 -0.12026283632660423 0.18450487567324397 2.3847023689513853 67 136 77 0.097946502009011602 88 324 61 364 79 301
4762 -0.18305467822654697 1.2062209000569322 2.6034864362023828 69 116 62 0.10999805188143671 13 510 88 624
4763 -0.16692402742846235 1.2411568592397548 2.608723223209807 71 119 60 0.10477326789267466 14 655 88 632
8040 -0.22321678296769204 0.86894557959268448 2.6045490237201729 82 115 62 1.036319534293056 14 2248 35 2524 17 2082 62 2070 74 2430 13 1975 59 2608 36 2614 99 2496 66 2333 56 2462 98 1771 10 1766 83 1965 17 2125 62 2125 42 1534 44 1453 89 1264
4765 -0.32554379718297727 1.0942278183977101 2.6009848079917193 222 206 125 0.080039555328119738 17 553 88 651
8034 -0.23213989572839813 0.4828245193456861 2.6843376492359652 169 160 90 0.42201735189869055 74 2331 83 1864 42 1406
4770 0.043108881977891492 0.50408676787132811 4.1961608028390982 195 189 112 0.37516635084214861 14 340 88 697
5427 -0.57164198531262089 0.74282529428553223 2.6529895263440051 59 98 49 0.0085078904127332336 56 1281 51 1252
8157 -0.86826333104595355 0.77591034191778463 2.7321268226517663 151 140 81 0.46088606879957172 66 1260 37 1039 54 577
7479 0.27253519710052149 0.43168110080427058 2.2200775880770567 142 148 103 0.096820564242520751 99 1527 67 1338
4775 -0.4549889468966421 1.2963876704121391 2.6548526488082684 76 130 63 0.13270475236627735 80 790 88 771 19 495
5940 0.35948709222037234 0.96041269277352859 3.4851757190828527 0 0 0 3.118421675862586 62 511 90 642
7638 0.20879318262141588 0.35706390934754112 2.0930967713264699 54 99 54 0.028116384841229608 99 226 60 215
4778 -0.90005079121374543 0.80268466029312879 2.7416046772985441 79 105 51 0.17193011468683911 66 729 88 819 56 769 11 339 94 293
4779 -0.42926470821243928 1.4502260855792561 2.8310092083556802 235 221 217 0.25456177116119705 59 1427 88 828
5594 0.33277739176084459 0.3727501976444349 1.9110316564856056 199 210 159 0.21724290183056061 51 91 45 88
7992 -0.20031124604486322 0.70034531807265621 2.6260377584076053 173 160 92 0.098747980846107961 13 1239 83 1241
4780 -0.97210940735804963 0.96334285138580222 3.5273838136288314 195 197 210 0.23979654368162129 80 847 88 871 61 856
6105 -0.35928596377578226 1.0862793319819231 2.5991908744186438 135 153 89 0.020653826054961799 45 1239 61 1316
4783 0.49768184472213195 0.39470694809625612 1.8353849497831707 74 139 76 0.28846811417145823 80 106 88 938 61 71
5948 0.73723698108354563 0.4150932055380373 1.8562687294687947 242 247 254 2.2161240072158099 45 0 61 34
5894 -0.029148559086398095 0.097960880196650918 1.8682118349545456 133 146 99 0.70327865451964788 51 2267 45 2459 54 1888 23 1661
4787 0.44741328346206466 0.44082514559383174 1.981938165960363 85 157 86 0.23288191120827656 80 966 88 970
4790 -0.14268500975049775 -0.069428095894281214 1.867197463098657 47 98 53 0.24112029813285538 80 941 88 981 45 973 51 967 95 804
7431 -0.36274612789423122 0.1838859511013079 2.7907613391178727 29 81 39 0.19308740137549643 99 1091 67 970 42 898
4791 -0.10075606434182102 0.076825962821498311 1.9712139996570262 59 110 56 0.31945688258046268 80 981 88 1005
5892 0.21530290260874035 0.087135041855607442 1.5218564260599969 112 86 58 2.0843430085842702 51 2258 45 2448 79 2361
4794 -0.19967468021546536 0.075833316598643452 2.4139204657825553 41 99 54 0.33649052585732309 90 1005 88 1098 60 1518 32 949 19 945
5387 0.79286325594488205 0.027285959232686119 3.5806459220735833 66 128 66 0.075820573489114362 66 841 51 968
4797 -0.52661729861450013 0.21636357270002582 2.213563617857242 80 130 59 0.19812845472600898 66 1162 88 1154 56 1680 45 1661 51 1602 61 1147 37 1323
7938 -0.072273792396295874 1.1399579143974508 2.6031374053471366 244 226 136 0.037984655670761591 10 84 83 480
11535 0.35935361550983469 0.43423248917453194 2.0450610551573232 64 129 72 0.20096543252589216 15 165 75 111
4798 -0.098012409020208496 0.2597050952127386 2.7569058790743761 207 194 108 0.52850135808776189 66 1470 88 1167 45 1169 61 1168 54 409 23 324
4801 -0.045614609211918018 0.85921779850942259 2.613264860406515 192 176 112 0.15895098619061349 80 1237 88 1229 61 475
5974 0.37618333582946972 0.84766781591119311 2.197280084824246 61 109 40 0.31997135331370236 45 155 61 244 79 932 23 652 54 726 40 594 24 526 73 565 9 565
6183 -0.59320088968525753 0.9683776940716573 2.6375548288410791 62 111 57 0.34627443008746234 88 1895 61 1877 54 979
4802 -0.046107952637212769 0.85945817718568485 2.6127845168720736 192 176 112 0.13228545183433943 80 1238 88 1230 56 1094 51 1035 61 476 79 420
5459 -0.091216203028970447 0.13879321858105739 2.0971613932429585 71 140 76 0.11072952424615749 56 1515 51 1464 37 1190
4805 0.47967340752161824 0.12030341905567152 4.500963039533783 134 151 80 1.819090602208179 99 1276 88 1293
4806 -0.23862329658651141 1.0690720629244002 2.5959851394760043 234 219 139 0.010363692528362285 62 1066 88 1317
6180 0.066370249242995338 1.6399535214034431 3.0665982162098802 211 213 225 0.083879660925044355 88 1906 61 1867 79 1698
4807 -0.19655199833761028 1.2817065121242015 2.6159167917134489 233 225 147 0.14676984097166734 90 1225 88 1347
5157 -0.18687800897592943 0.2084358633391612 2.774108303386372 106 115 61 0.62421424542568194 80 1683 56 1621 10 1306 30 1173 11 699
5972 -0.15877595033207764 0.050721019923431594 2.0497425115342871 62 117 59 0.092199059958655669 45 249 61 240
4813 -0.49036875051729323 1.165639998382503 2.6365190073265143 65 114 58 0.16551527170954261 36 1329 88 1391
6179 -0.60028775977379967 0.80780437946970418 2.6463261314294595 130 145 80 0.85205367587742242 56 1746 62 915 61 1866 30 644 37 963 32 1547 40 832
4817 -0.7264524769603089 0.86719912578292291 2.6700646619230666 68 108 55 0.18370877061669785 90 1208 88 1402 11 662
6054 -0.66286899673690791 1.3215753688270004 2.9489600388520958 240 231 213 0.27695536054334197 88 854 61 826 79 738
6199 -1.0145840562853934 0.89157922878946416 3.5261544627169488 157 135 107 0.49903136121316571 45 1846 61 1968 79 1804 55 1202
4819 -0.73739432887646428 0.91370966798064224 2.671133817673319 224 208 128 0.14928522985536427 66 1245 88 1417 56 1315
4823 0.093778696884900592 1.6490966862397163 3.4028031733531683 251 252 254 0.050691843694665374 80 1457 88 1429 61 734
5173 -0.64379323812315437 1.0937167600662769 2.6688454121733267 227 214 136 0.37933980471085976 36 1828 90 1746 56 1763 37 1315 35 1793
6052 -0.70978484646711715 1.1789844699439951 2.7157615313927241 146 198 100 0.15954276973101564 45 749 59 776 61 787
4825 0.20430809020491986 0.077988913542727162 1.5061710886495203 70 51 34 0.32146499419165764 66 1285 88 1478 56 1375
6062 0.083406612089030968 0.18977888312242958 1.8652281979685841 53 101 55 0.35588108845286032 88 975 61 943 79 106 54 103
4826 0.49415339179734219 0.30721573264207958 1.6357115289974038 169 170 181 0.23238867073378078 36 853 59 1468 88 1486
5547 0.31794747616798319 0.24971128480078025 1.714169012282154 80 142 71 1.0691820474474569 56 2318 51 2196 45 2391 61 2571 90 2447 79 2366 60 2349 69 1991
6200 -1.0091742534001864 0.96478085203994257 3.5128465187191851 186 176 176 0.54139881497912734 88 1993 61 1969 79 1806 37 657 69 1219 95 1558 22 1160
7225 -0.48735615694274537 0.82491142599374012 2.6309220361392747 69 121 59 0.030452562626779252 79 1689 30 1005
8104 -0.52704812684575564 0.80002108571109176 2.6397736208864866 59 97 45 0.20353529254662628 34 499 79 585 37 446
4828 0.29399700699250575 0.24826472580635561 1.7363383614816423 204 200 145 0.083720737425619057 36 1469 88 1514
7218 0.52619924448216726 0.6085148347776107 2.5190074710093708 181 182 193 0.14330527622446831 58 1441 62 1678 30 898
4829 0.15288988466041697 0.18299270123782829 1.7449096848395054 112 138 88 0.94552205077042628 99 1438 88 1530
6195 -0.94905998916316148 0.78246627562446147 2.7607024320219309 198 197 111 0.36203561355128933 45 1841 61 1951 79 1786 37 1426 69 1175 54 1412 40 1215
8098 -0.29685623007905038 0.56739747090194759 2.6635271139979979 66 104 47 0.22837645065690748 66 492 37 404
4830 0.077439542041910586 0.11792962468006907 1.7583327451565161 167 163 116 0.059306508553730673 80 1539 88 1535
4831 0.31519795900137521 0.33713948117588277 1.8493840489110618 179 183 134 0.0092538611725498029 59 1517 88 1542
5181 -0.81481491771122605 0.98807928277526036 2.71353406307058 94 170 77 0.31565145059012645 66 1674 56 1793
6060 0.24525107483268949 0.2423021999142409 1.7587533082728795 54 96 50 0.18154227413522828 99 872 61 911 15 692
4835 0.50547427879979179 0.59405344396631687 2.5193392411010578 183 190 206 0.36935319951613266 90 1917 88 1632 61 1629 79 968 60 1525
4837 -0.18342741325032336 0.095390230219709896 2.2778391377922542 119 136 90 0.26480670202339401 80 1033 88 1651 45 1585
4838 -0.18301069753841079 0.09508154252781062 2.2784559530249306 119 136 90 0.21941138157635784 80 1034 88 1652 51 1505 45 1586
7543 0.29711646187335361 0.40171266271613387 2.0389589089279858 164 168 123 0.2169790666840021 36 2269 67 1888 60 2067
4839 0.30601201815570223 0.48490326087339175 2.588908953627949 172 179 194 0.82909039935664441 36 1624 88 1663 61 1663
6004 -0.32887252795134364 0.84378475911928086 2.6062423090807276 193 192 116 0.045714550660624888 88 572 61 558
4841 0.24391608284071731 0.6478019516010165 2.6834186652534564 66 126 66 0.32854921339076504 80 1689 88 1699 61 1117
6014 -0.41300091754292101 1.025249884492053 2.6085891576836926 248 233 145 0.14571977798375993 51 538 61 617 10 113 58 186
4844 -0.59742493437842425 0.3526253572975116 2.2175192315355994 65 118 62 0.32797103060191934 90 1561 88 1741
4845 0.61446520792667092 -0.0459458941062416 4.4835767860404419 176 160 93 0.50457640227666856 99 1692 88 1765
8050 0.35411207600077421 0.27717539898375654 1.7357248162160754 206 205 151 0.45090028082143524 35 2410 13 1811 83 1773 14 2023 35 2314 100 2137 17 1798 62 1815 58 1769 34 2326 80 2471 59 2401 36 2241 66 1946 56 2210 51 2096 98 1600 10 1616 30 1419 67 1868 99 2115 88 2463 37 1610 15 1764
4847 0.57500072762764332 -0.03081420100316927 4.4812057740238798 79 135 60 0.72197824242325115 99 1703 88 1775
6012 -0.44545424634703651 0.81882198338739454 2.6218008481776174 82 125 63 0.074117054137225413 45 607 61 602
12096 0.58087110087253346 0.65173771396198965 2.7281115750611655 252 253 255 0.33787854672404694 48 292 83 469 42 739 8 573 46 537
4851 -0.065312048345667034 1.1092320753239409 2.5973166322178196 234 219 135 0.28288021984286238 80 1825 88 1808
7495 -0.26504832563701686 1.3510462189726289 2.6358358688644516 246 232 145 0.12624739993339817 99 1766 67 1525
4855 -0.73751470634823912 0.53327574131383793 2.5700576022402459 236 231 235 0.45327372840927427 80 1826 99 1604 88 1853 56 1309 51 1292 67 1723 25 1371 48 570 89 51
5956 0.32069623468443786 0.37360378644327619 1.9149175947632529 65 120 65 0.019438518311404189 59 953 61 125
4857 -0.16567144630592831 1.3278405867876466 2.6225893773227966 65 118 58 0.15606281551287915 35 1832 88 1860
5966 0.54535658680939103 -0.35420693747633691 2.6710662717850631 59 112 56 1.2595479957388291 90 224 61 202
4858 -0.19214026657719036 1.2971053394919578 2.618386603296027 69 121 60 0.12197751543550914 35 1824 88 1862
5451 -0.021837481776603988 0.13585398812748106 1.919012773886356 156 167 119 0.13774954842051579 56 1469 51 1425 45 1488 37 1142
4859 -0.19153201687557073 1.2964601192499539 2.6201774951503385 69 121 60 0.11998034958589318 90 1713 88 1863
4861 -0.62053100639426484 0.73642909864342598 2.6627575691755645 207 195 114 0.19916089972656936 80 1865 88 1873 61 1864 79 1708 10 1156
4862 -0.38216785410463622 1.159700020294407 2.6163205427017804 69 115 60 0.038637322325097243 36 1809 88 1882
4863 -0.81535412863790713 0.64451362179198446 2.6861396955574439 205 205 154 0.29066584576622556 59 1741 88 1899 61 1902 79 1317
11955 -0.31892178783026753 1.497866814021183 2.9675192413802067 64 53 42 0.37873747226751336 75 1121 48 799 72 1025
4864 -0.71787665192363681 1.0232155871894639 2.6819933483400611 136 165 93 0.83052865751430627 80 1951 88 1944 45 1796 59 1832
4866 -0.63070886724137942 1.2378141833576808 2.6995289234485798 81 147 68 0.43603025233578102 90 1776 88 1956 67 1127 80 1471 78 1674 22 495
7869 -0.14419694863567978 0.085540683119483901 2.1335313542608079 84 119 67 1.2078080009170864 61 2761 60 2507 55 2225
5298 0.098643435902379922 0.15257259574362592 1.7786673704255496 183 186 137 0.038260194541356179 88 133 51 158
4868 0.22479837510706213 0.23357743258106128 1.7663658385078549 166 171 123 0.22103171973848601 90 1854 88 2017
5815 -0.80694056201224085 0.58490856979238981 2.6706439717267965 101 77 55 0.80363181076250578 51 1311 88 712 45 1806
4869 0.26478699961221031 0.30755274846151071 1.8432010550422315 64 122 65 0.18957204034724753 90 1863 88 2030 61 1996
4870 0.39445886532149921 0.4131514706154773 1.9326433728380892 74 140 74 0.38989875511977373 80 2038 88 2036 61 2000
5809 -0.68921157631021446 1.0897300062061797 2.6822431380068683 199 200 123 0.17911302379981914 99 1724 45 1788
4871 -0.11144577080139706 0.013113991488191659 1.8761970376664148 80 115 62 0.2624412575391909 80 2036 88 2040 61 2008 79 1843 60 1819 78 1776 32 1361 19 1309 25 1247 69 1621 55 1578 95 1583 22 1509 90 1859 54 1456 23 1316 40 995 24 811 97 881 73 861 9 878 96 384
4872 -0.14671283534365648 0.023479062830686737 1.9798864803309915 65 125 65 0.51402373331833151 90 1448 88 2052 45 1921 61 2019 79 1861 37 1500 32 1384 25 1261 54 1467 23 1330 40 1289 24 1051 97 1126 73 1116 9 1125
7867 0.26834291286556933 1.0687013474525633 2.4921355010704556 0 0 0 0.012097910864668587 79 2565 60 2458
4874 -0.1762820088239154 0.099639481110803715 2.2521895747121872 59 124 65 0.20504960656262619 90 1894 88 2083 51 1814 45 1948 61 2055 79 2121 60 1858 19 1730 32 1789
4875 -0.18091660638587248 0.11018259371312765 2.3017359765147947 56 119 66 0.33698906276396073 90 1517 88 2088 60 1861 32 1792 19 1733
5306 0.27868870355786618 0.80586147709378064 2.6655906907111921 87 125 68 0.049684771237959099 56 251 51 244
4876 0.51115856224629896 0.61669904846064483 2.6704313546866345 224 232 250 0.47706466560215299 80 2076 88 2091 45 1516 56 1434 61 2056
5823 0.59045012496342775 0.66679468048786938 2.4192651790488022 116 103 89 1.3321509964966334 51 1724 45 1891 60 1501
4878 0.37608524559484718 0.94702101821086637 2.6771690785428599 205 189 125 0.25994040404941487 66 1746 88 2126 56 1868 80 2122 51 1753 45 1932 61 2074 37 1464 11 1063 44 1215 10 1556 94 798
5817 -0.80421484384650099 0.68871395788867407 2.736259192287708 58 102 44 0.86419640148178622 51 1685 45 1813 79 1757 22 1405 95 1468
11454 -0.1627517464827945 0.80311964627504751 2.5995948339482986 98 159 78 0.9178159615061694 15 2010 77 1684 48 1535 42 1563
4879 0.048203632741805946 0.70163236808870177 2.6472941438980548 165 157 99 0.1016947761599238 80 2340 88 2139 61 2090
4881 -0.11689278179613062 0.9663216895387422 2.5942591345862041 65 121 64 0.019985732572823607 80 2170 88 2173
4882 0.02160242563376763 1.1999125897992964 2.6121761163694392 220 222 134 0.4879985824538623 14 1990 88 2177 61 2126 10 1534 42 1358
4883 -0.31912272349647941 0.85654563676745998 2.6038124729952998 61 109 56 0.27415726883089658 62 1659 88 2186 30 1297 14 1779
5250 -0.85295997963856285 0.92491126737990148 2.7784199831797771 96 173 79 2.5070705425599926 62 1994 56 2420 51 2298
4884 -0.3905982014469192 0.98247241097599158 2.6060117843389978 221 209 131 0.21721289412077391 62 1686 88 2199 45 2032 51 1856 30 1274
4887 -0.15340553128157586 1.4424147522037702 2.6569165399519292 85 145 67 0.068079312823825733 80 2229 88 2218 61 2162
7302 -0.45033971308061044 0.37122483955528907 2.731199879753309 122 108 61 0.25662175141250693 10 1275 58 1161 17 1247 98 1002 30 1105 14 1353 62 1240 34 1574 40 1165 11 954 94 897 81 492 52 805 29 792 6 537 39 480 27 441 76 381 87 418
4888 -0.60041900256455527 1.2600761370622169 2.6790755156697958 135 171 91 0.21933980366742917 80 2252 88 2255
7819 0.0017878035913395096 1.5657997274907189 2.8409384988824899 223 215 217 0.99266194690896536 61 1841 88 1888 60 1980 69 1469
4890 -0.67619032880312513 1.2400306448990315 2.7657437264427864 145 150 107 0.53644004275243173 90 2262 88 2267 60 2328 32 2283 19 2186 25 2032
4891 0.51509897673552685 0.27758494539789502 1.6364035252838784 255 255 255 0.52952892602128931 90 1843 88 2285 67 1627
5258 0.26394094451312672 1.4348739603831182 2.6492621923813835 0 0 0 2.0587645022549528 88 2813 56 2553 51 2414 45 2589 61 2776 79 2568 60 2527 37 2032 54 2097 23 1931
4892 0.17304066021136405 0.082858371111240031 1.5788779565033246 111 101 90 1.0029589158014645 80 1995 88 2289 56 1819
5775 -0.31280373393427752 0.062192658566974555 2.2468712213174826 223 214 216 1.25946241581009 51 1541 45 1607 79 304 37 918 61 1669
5769 0.1791265801741117 0.38884978282783633 2.5594624688242389 115 101 76 0.23101303422243799 51 971 45 1552 79 1545
4896 0.337956847306013 0.46457472500123165 2.1813946843700163 162 172 121 0.27913745316721827 80 2054 88 2330 61 2310 79 2108 69 1851
4898 0.28270766266947073 1.3094080766186231 2.5578672490217524 254 252 246 1.4567019321939287 90 2331 88 2357 61 2342 79 1902 78 2064 60 2129 32 2049 19 1986 69 1690 95 1656
7773 0.003048473632216317 0.20816852623464047 2.0624489830561519 164 167 122 0.17968150980930117 90 1477 60 1436 19 1350
4899 0.26025229656562587 1.3800445553257061 2.6975250123376506 255 255 255 0.47260762939158818 80 2387 88 2374 61 2110 79 1920 69 1398
5202 -0.64522882441458118 1.0248861336243111 2.6566065465253597 222 214 136 0.061965329974829432 36 2163 56 2011 61 2206
6605 -0.49674785055379783 0.87796328565233206 2.6215040132571348 201 193 118 0.47647896154273645 36 2333 45 2234 79 1991 88 2204 56 2163
4900 0.059109547269980106 1.2943952158372907 2.6118957588804448 89 163 83 1.1130254341553711 90 2339 88 2385 61 2127 79 1604
5719 -0.20444079891642225 0.86039963753697823 2.6066087859437128 130 141 81 0.28124674878341177 66 1541 45 1187
4910 -0.14977704679290926 -0.028246612549244168 1.9188194391638995 133 134 91 0.48648894645649132 90 2120 88 2478 45 2302 61 2481 79 2265 78 2156 69 2010 55 1929 95 1926 22 1855 54 1793 23 1668 40 1568 24 1220 97 1384
5576 0.086242628276148647 0.76434804760660402 2.6409923557153352 142 136 90 0.14706335574468513 14 1015 62 996 34 1139 35 1234 13 918 51 1008 100 1510 17 1395 58 1328 74 1603 66 1440 98 1156 10 1172 30 1118 83 949 81 869 52 889 50 573
5721 -0.24998478805242602 0.90564837123034614 2.6005574630731032 67 118 58 0.086835438493020334 34 1214 56 1169 45 1204
4911 -0.10158511565807045 0.10057494351241221 1.999805593055749 112 138 87 0.35722362929855345 80 2478 88 2480 56 2235 51 2133
4913 0.19980095213708815 0.93933234740288329 2.6347411708815942 155 159 97 0.23910936263454075 99 2306 88 2506 61 2502
4914 0.15372132980124092 1.0976451630641044 2.6274254018271344 165 165 91 0.55957939539135682 90 2329 88 2513 60 2132 78 1539
7644 0.21839170504263455 0.36404391331296904 2.1097488082276619 52 97 52 0.095204571084815545 90 244 60 223
7853 -0.68918216013291556 1.2185208070877702 2.7343492845497623 45 87 45 0.5344201811066347 90 2365 60 2322 78 2224 69 2083
4915 -0.57721457224734518 0.68595467043193525 2.6678930479481964 222 207 123 0.25319863011225269 66 2178 88 2528 56 2300
5282 -0.10664750293459094 0.039912375312397025 1.8915879509812035 67 127 65 0.05405179202575025 66 1395 56 1489
6621 -0.5610646299109453 0.89810819036428535 2.6341255197714073 92 150 72 0.013246751379668456 61 661 98 88
4918 -0.57674338734465391 0.79136077669855787 2.6403525057150752 76 116 58 1.1035641704407722 80 2532 88 2540 45 2367 37 1823
5793 -0.42943207022369373 0.82329323964745671 2.6202986438396629 230 213 130 0.24038000781895974 51 1599 45 1718 61 1829 79 1678 30 1018
4919 -0.32770820413639068 1.2612917423286822 2.626116918909283 254 249 162 0.47815738331497326 35 2384 88 2544 48 1188 54 1528
7334 -0.11935730713789407 0.93152118277447726 2.6004736069544818 0 0 0 0.16413410359023961 13 410 30 199
4923 0.058099041478490904 0.12414053298864457 1.7805562627142766 115 137 90 1.2140517420788013 59 2528 88 2623 61 2634 79 2434 78 2335
5290 0.11260508410654807 -0.0047683988588619053 1.5647112302597506 255 252 200 0.26838743710799523 56 91 51 98 94 10
4924 0.0021549705462571705 0.14178193571404199 1.8935999458416706 59 114 61 0.99412702889758675 80 2652 88 2630 45 2460 51 2266 61 2636 79 2437 54 1890 23 1663 97 1277 24 1047 73 1289
4931 -0.81899879028943201 0.86083652665382215 2.7015518278744044 72 119 58 1.2240845245423886 36 2558 88 2721 61 2737 79 2548
5362 -0.61536865805314034 0.87684620386656464 2.6463233913966246 230 215 134 0.0093306931757779227 80 682 51 652
4932 -0.98724198413166786 0.83708554588829487 3.487148824914819 0 0 0 1.5383930721171564 90 2622 88 2724 61 2817 45 2636 60 2557 32 2427 19 2331 22 2155
5879 0.24429953399893994 1.2199155761387277 2.5320363778526511 238 223 221 0.44038627321369184 51 2120 45 2314 61 2597 79 2289 37 1780
4934 -0.78832709251257049 0.94119234510336502 2.6974450749607146 137 166 87 0.64602253056684666 90 2599 88 2805 45 2632 61 2813 79 2599 54 2088
5873 -0.72572758123334247 0.80106673831200792 2.6809785642024293 226 207 123 0.22072326179282062 88 2425 45 2263
4935 0.2532064870297801 1.257579260689166 2.5587846127652489 214 199 191 1.3044326589638806 90 2640 88 2826 56 2562 51 2413 45 2638 61 2832 79 2606 60 2583 37 2031 69 2348 54 2096 40 1808 94 1414
7414 0.41977846196214008 0.38616731956721562 1.8579794543791035 67 113 63 0.11777113153600749 35 1554 67 823
4938 0.53857576933215701 0.45656070343611499 2.1519092855428319 62 72 65 1.6073497453769234 14 880 100 246 17 299 58 626 80 184 88 189 90 240 30 529
4939 -0.58406594625808639 1.3638760420976717 2.8559214096701915 185 175 175 0.37772063287014018 35 1863 34 1377 88 1976 80 839 59 1914 36 1905 99 1812 45 1358 61 1468 79 1335 60 1768
4940 0.11973631676448249 0.0086905692602233381 1.5456289277183999 92 71 54 1.2091740040285324 14 1631 58 1728 80 1497 66 1949 88 1488 59 1445 36 827 90 828 56 1398 56 2042 100 804 51 1941 45 1859 61 1520 98 1561 10 1631 30 1553 37 1620 78 830 44 1396
5887 -0.40779291589979028 0.73273156373185877 2.6303586074264982 234 215 131 0.74832236562201004 62 1993 45 2428 61 2607 54 1841 81 1272 50 1209
4941 -0.3022984678494241 1.2493369753749277 2.6188542385321645 81 139 69 0.28175212084681533 14 1842 100 1926 17 1731 62 1729 34 2110 74 2000 80 2223 66 1866 88 2216 59 2165 36 2167 99 2029 90 2009 45 2021 61 2166 60 1947 83 1571
5881 -0.59702780579975356 0.40188533077404709 2.2352144462197563 255 252 249 0.62359232152374355 51 2169 56 2362 45 2345
11518 0.53345778724086335 0.39735392717997992 1.8531238117035351 164 166 126 0.17110985938051401 77 63 75 69 48 59 42 83 8 36
4943 -0.13001674095091684 0.8350240218298598 2.6083804829880357 62 102 54 0.91917961679396565 14 1041 35 1261 100 1135 17 986 62 997 58 844 34 1181 74 516 80 1252 13 900 66 1082 88 1254 62 1411 34 1178 80 1779 59 1196 36 1162 99 1163 90 1106 56 1119 51 1072 45 1165 61 1199 10 772 30 732 83 338 83 933 37 286 11 157 44 580 81 803 52 143 52 827 29 728 50 530 33 144 68 381
4946 -0.80861601709530573 0.71251414945840574 2.7392191054739863 155 149 82 0.63298289713702349 36 1755 90 1694 88 2432 14 1757 59 1762 99 1192 56 2194 51 2075 45 2270 61 2426 79 2221 60 1682 37 1843 78 1904 69 1950 22 1805 54 1865
5155 -0.17637151972489482 0.95076655766356089 2.5995239288820735 52 93 51 0.1682961571860947 17 1434 56 1614 51 1514 45 1645 30 1040 10 1103 44 852 66 1532
7885 -0.99630976491408874 0.93290304052469208 3.5473377535043107 224 224 221 1.2039109095429976 51 2423 45 2646 61 2829 79 2622 60 2590 80 2831 59 2712 36 2727 99 2594 90 2636 88 2819 67 2374 37 2041 78 2506 32 2455 19 2350 25 2211 15 2076 69 2367 55 2271 95 2252 22 2178 77 1807 75 1736 54 2110 23 1965 40 1832 11 1525 94 1449 72 1371 24 1517 97 1599 73 1625 96 1165 57 1096 6 991 39 873 27 755 33 1249 76 749 87 789 16 825 31 815 71 713 5 624 20 583
4947 0.028150529828195228 0.045642658444230821 1.7402289454406799 59 115 62 0.4937850902267244 36 1946 90 1847 88 2019 14 1880 100 1969 66 1962 80 2283 56 1849 51 1743 45 1880 61 2277 79 2086 37 1458 69 1611 22 1182 40 1271
4949 0.0018359795579066251 0.40871723027107604 3.6836849043475612 91 121 61 1.4081288313363145 88 595 56 537
4950 -0.73521875937398939 0.82774951553096909 2.6817128609273011 75 117 56 0.032994599424777435 90 572 88 1396
5825 -0.1097415709053504 0.012507697063532913 1.8794257713123657 87 115 66 0.15057577238034259 51 1768 45 1908
7207 -0.42875205723490406 0.14543274658804126 2.2210688816581801 63 104 54 0.16296776923257883 66 1119 30 814 44 734 37 416 29 570 50 650
4951 -0.31209723520984944 1.134379448263489 2.6043085161982358 239 229 140 0.13701497942999763 36 1789 88 1858
5668 -0.28833473909440521 0.90462242485137567 3.3750205891821459 67 107 53 0.020576289704034398 17 458 45 708
7366 -0.60020416862107329 0.50125524042443437 2.7091691870094459 176 163 87 0.34141417321496548 99 1136 67 381 39 329 87 46 16 59
5322 0.60280578268992602 0.55728048923399676 3.9762691092533067 93 121 59 2.1705501597222057 80 413 51 413
4958 0.38231026573221405 0.84328345654020342 2.1684488892122014 67 120 47 0.85968255741814381 88 270 56 129 51 116 45 143 61 235 79 187 37 62 54 132 40 75 40 77 23 108 11 31
5833 0.053937881807520432 1.1315341144438318 2.6243165835875573 86 138 70 0.18495708063387994 51 1787 45 1963
4960 0.016212339626352615 -0.054709543280392306 1.6999746169650096 121 109 100 2.0744984572109346 66 157 51 174 45 109
4962 0.32678302683374183 1.1378138152432102 2.1582197202162665 255 255 253 0.18505264535183361 66 882 80 1152 56 152
7837 -0.86788530731207514 0.5927224377760727 2.7688670180951438 154 137 115 0.61495971716737852 88 2431 60 2164 19 1830
4963 0.0043840385076432259 -0.047664319830498916 1.759423352181859 195 193 201 0.10320502976183216 66 172 51 868
5266 -0.78894551169919447 0.7651643058386921 2.7112415575098239 89 142 64 0.22229327475757746 58 18 66 713 56 1324 80 704 36 576 98 30 10 229
4964 0.30860963748048598 1.1301882004295074 2.1616315589337214 254 232 192 0.42535401919950866 88 351 56 165 51 133
5783 -0.28541977324538576 1.0366325847815825 2.5972509085710467 63 111 55 0.042861781308700685 56 1661 45 1680
4966 0.40418540649023277 0.54826916225029598 2.7491875663162366 75 130 63 0.12278667749895827 66 876 56 208
7318 -0.30608518623970543 0.62146796372110358 2.6496171684222101 43 72 34 0.58732533161254508 17 1322 62 1323 34 1628 100 1483 80 1242 14 974 35 409 13 1210 59 474 88 527 45 1225 79 505 30 1328 17 1625 56 1954 6 322
4968 -0.10496182022007132 -0.0021295690657553851 1.8452283930624378 71 115 60 0.055691524784618508 66 227 56 231 51 247
7835 -0.32625570108418178 1.2628098691971414 2.6266038636446623 246 238 151 0.15218748357202538 90 2218 60 2158 78 2084
4970 0.27900167805502246 0.80478130928939318 2.6663404416797767 90 124 69 0.29187266629208652 58 527 56 252 51 245 10 256
4971 -0.11778418191650178 0.023545232549863168 1.9034805656664024 71 131 69 0.13839806416058761 66 247 56 255 51 270
5274 -0.20954496512695261 1.4132382452472874 2.6516034740404031 104 179 88 0.32032192174926738 14 1864 17 1757 62 1747 34 2305 74 2214 35 2290 13 1623 36 2373 59 2367 99 2229 90 2238 56 1950 100 1952 66 1856 30 1249 67 1985 83 1597 37 1177 15 1724 77 1479 75 1273
4972 0.27238222134455398 1.3352031374626392 2.604618937235287 249 245 228 0.2737632950052703 66 263 80 1281 56 258
5791 -0.059512580302043469 0.71597515742420736 3.2700105629566476 74 116 55 0.12908936670692472 59 1763 45 1709
4973 0.23781175116949888 1.3597607126632014 2.6446499597669493 81 65 47 0.58925183994893571 80 2182 56 268 51 230 45 1061
4975 -0.094582831944186971 0.162507093663397 2.1471974379669416 76 147 83 0.056220443236735425 66 275 56 282 51 326
4977 0.1539301832573699 1.0590267738220582 2.6277235463241237 58 99 46 0.32769546313599146 80 1247 56 288 83 1019 29 146 10 125 50 89
4978 0.12254797525322586 1.1236783789912392 2.6203044169535956 240 220 133 0.15721520087116916 14 1139 56 303 30 214
4980 0.076539763865576371 1.2299779886838722 2.6219108860801468 83 141 68 0.061416448355923796 66 357 56 339 51 300
4983 -0.0031954332434580984 0.99166083248296855 2.6072861433062164 62 100 52 0.093282410548652273 62 525 56 371 51 347 45 401 30 222 44 113
7398 0.18286435212874891 1.365921318554161 2.6760577681444668 134 169 102 0.29264623011728669 99 655 67 598 77 867
4988 -0.083271364759823524 0.7322591301461947 2.6202058274389226 71 98 51 0.14195548016238418 34 439 56 405
5865 -0.38482224575827545 1.2456871875741502 2.6234951278188512 85 153 67 0.01418588770947429 56 2159 45 2229
4993 -0.29480842279615149 0.021525663219247426 2.2453784329147144 228 204 177 0.20792115449264206 80 1032 56 433 51 472
5654 -0.47035614265317871 1.0406458881230964 2.6187557418365253 69 111 55 0.28626563210028033 51 574 88 689 45 629 61 641
4994 -0.12194717309949034 0.69092244298716154 2.6288681483127063 180 163 105 0.15927735693593473 34 423 58 314 56 437
4998 -0.16630189987042887 1.2415808588517012 2.6076742081251325 81 133 63 0.20331649634773341 13 534 14 654 56 471 48 301 75 340 42 331
4999 -0.19349320746549509 0.34464182592713355 2.7264835799130145 71 109 49 0.075299569523220089 14 221 66 422 56 473 51 503
5652 -0.40955626669574424 1.3116201917259136 2.6494460818707988 90 152 69 0.086681400729369168 56 633 45 619
5001 -0.19828025138608901 1.0080989020437536 2.5929954954708632 207 196 123 0.029777306288502409 100 603 56 479
7704 -0.081036208048898925 1.5417706854538944 2.8847922584903607 117 96 77 0.21652264409825372 99 787 60 663 32 1658 19 1182 25 1500
5005 -0.20053663933253513 0.9857588942345511 2.5997312126548358 206 200 128 0.034626129509060369 34 559 56 487
7698 -0.2238431223088434 1.4889682575457206 2.7100382534188396 193 202 155 0.35285080005895048 67 1179 60 611 78 589 32 559 77 875 75 823
5007 -0.18425469300165831 1.3230572949291952 2.6204057594377645 87 142 67 0.18173747203798177 88 663 56 492 45 495
5660 -0.56392567695434992 0.64486371064095871 2.6706008168924051 57 90 43 0.27716844955339187 58 74 45 669 23 381 30 686
5009 -0.2359635072729506 0.42741438654771974 2.6976252533077849 59 102 44 0.14103559400648091 66 444 56 500 45 498
5734 -0.4549470064037045 1.0116876913096748 2.6180733848530164 244 230 145 0.12596512508001659 59 1282 45 1280
5219 -0.84599621490412369 0.65662322934407202 2.7125767968554468 212 189 169 0.19357015894064034 66 1928 56 2198 51 2080
5011 -0.24066588415462603 1.06787212046153 2.5955161681143757 247 230 147 0.023579516924314935 36 581 56 510
5012 -0.21162849762472963 1.3577995820157078 2.6326975349708222 106 161 79 0.054316319010312572 34 749 56 512
5014 -0.26770751612307953 0.84641012945408101 2.6072718912460355 59 101 53 0.051313063623974364 34 494 56 523
7271 -0.084941797801589058 0.4010232470132235 2.706332984968721 48 90 39 0.081651837205084982 98 1379 30 1380
5015 -0.43590168256553236 0.11672068947151859 2.2259752381479041 70 106 51 0.43878377069875896 58 61 56 525 30 387 50 325 33 265 27 39 39 39
5017 -0.27244965198751625 1.0122484347747838 2.5946344703950621 56 93 49 0.12210431493526695 66 516 56 533 45 517
5227 0.29105594208360064 1.095735990573699 2.6520230325216252 185 176 121 0.40464872211876557 66 1985 56 2232 44 1308 10 1646 50 1069
5022 -0.31486999447636987 0.4673639808337588 2.6896333204568807 157 154 90 0.23484701769657451 80 439 56 561 79 507 44 351
5026 4.8704955065099762 0.81132099931937007 21.110134535283763 185 170 103 0.1834127945235357 80 748 56 579
7901 0.37253144804953192 0.26366778411812641 1.7142271954079256 185 184 131 0.26537342989074619 14 115 80 69 83 94
5031 -0.40213681943007257 0.68468030282475856 2.6422752695625302 69 102 51 0.09376133456845262 100 442 56 603
5684 0.37713981453183687 0.23782083972268969 1.6949786711117305 169 178 135 0.14585535428519583 88 903 45 845 37 30
5179 -0.76635538355274657 0.63892945241308008 2.6699598532561395 239 233 237 0.65344007565112616 66 1919 88 2221 56 1782 51 1677
5035 -0.39856442369844919 1.161385998339153 2.6162977706188784 73 127 58 0.12664048881662238 14 620 56 616 61 633
5338 -0.25422156669127666 0.46524451828004315 2.6889415252718321 88 116 56 0.046982153314497753 14 282 51 516 52 177
5039 -0.57514884128814603 0.32218674904727579 2.2107902311540135 68 119 58 0.5001599977297807 88 444 56 624 61 448 51 590 60 335 90 352
5041 -0.45384699225667818 1.1592607154108165 2.6298122555096328 178 188 116 0.2629510757615473 36 648 56 653
5638 -0.28990217875729585 1.1785915276130485 2.6062345853404292 83 133 65 0.13885906613450696 51 474 56 562 88 660 45 547 61 599 37 275
5123 -0.63064389986853875 1.09952255890967 2.6606499124518828 100 172 77 0.23781197079244079 14 1135 56 1302 40 797
5049 -0.41028358937100445 0.99065352155642805 3.4172998067622467 59 100 51 0.4866073002824749 35 727 56 697
5050 -0.21343630317466974 0.91044901061515682 2.6011930737816011 0 0 0 0.094026986126286655 17 489 66 473
5131 0.11419014404341168 0.042758453378520134 1.5799551888508812 93 93 60 0.65850929187061336 14 1249 66 1309 56 1400 51 1362
5052 -0.60343580193529234 1.3529289170956811 2.8586969068449886 77 70 39 0.13929039428151521 66 695 56 714 37 421
5053 0.74797668568833753 1.5421488815338844 10.20716846168119 73 116 56 0.83966077693719465 66 559 56 728
7682 0.44518664551332643 0.68302079176793995 3.3611975956187146 87 151 79 0.29208020895371578 51 340 60 506
5054 -0.77702100344716929 0.54090409172102116 2.5983642626657235 96 72 47 0.39247985707480332 80 1313 56 731 51 702
5055 -0.78587669913034808 1.0048369567147 2.7122929041392529 102 173 81 0.63585738233464872 14 558 56 741
5644 -0.36989023543074379 1.1709099348182581 2.6117586068247292 249 239 157 0.11776871734311518 56 595 45 586
5057 -0.858925324307803 0.81597096454091878 2.7211085449528229 206 194 113 0.22114746312917313 58 13 62 270 56 756 51 726 61 1456 37 1037
5718 -0.16053408694275506 0.82110059932571644 2.6099757811798958 54 106 55 0.36905499654620866 56 1127 45 1175 10 778
5058 -0.8683051032431216 0.89434323386172743 2.7244456421165588 96 169 77 0.1729477227298403 88 824 56 765 79 724
11850 0.44862502670727911 0.46779268786916317 2.0160834142204678 150 162 113 0.059054674537557444 77 109 75 103
5061 0.60562349872017862 0.42008095827273778 1.7434527041641892 153 150 155 0.14380562033785438 56 792 51 761
5063 0.3607103601435826 0.21370361402005589 1.6026516191494578 110 96 55 0.097547450299059715 66 25 56 820 51 784
5413 -0.3759830178021365 1.2262405837753112 2.6253851687990153 234 238 154 0.21204368221889536 66 601 51 1144 54 399
5716 -0.44153338428930483 0.1364322615179947 2.221520892200092 248 226 133 0.21186331999862587 51 1161 45 1167 79 348
